      190.835      324.404      901.411     -886.085      597.282      266.623
     -82.0829     -1497.20     -12.9286      1160.37      906.257     -374.343
     -430.336     -1206.89     -171.254     -589.258     -766.573     -1511.99
     -1671.23     -2220.99     -2759.25     -29007.7     -734951.      818029.
      82065.9     -278202.     -377702.     -320470.     -329174.     -61425.4
     -56660.2      22968.9      46759.5     -341165.     -49529.4     -11142.0
      18211.3      233063.     -99462.8     -19350.2      62457.9      62646.6
     -312.283     -51034.7      20176.7      109083.      76743.3     -17052.2
     -7458.07     -43885.1      182945.      72280.7     -60593.2     -298946.
      595025.  -0.00340548
    -0.131909   0.00113510    0.0728691   -0.0159953    0.0373393   -0.0686399
    0.0137576     -2.41471   -0.0701740   -0.0204516   -0.0101381  -0.00606373
  -0.00414465  -0.00290517  -0.00211492  -0.00163071  -0.00124761 -0.000983008
 -0.000670883 -0.000415700 -0.000132332  6.12471e-05  0.000134261  0.000126560
  9.90075e-05  7.72964e-05  6.04688e-05  3.43049e-05  2.64033e-05  1.42953e-05
  1.27584e-06 -5.27794e-06 -1.12608e-05 -1.24644e-05 -1.14119e-05 -9.95191e-06
 -1.54844e-05 -1.47491e-05 -1.70647e-05 -1.62687e-05 -1.39003e-05 -1.47297e-05
 -1.34233e-05 -1.20789e-05 -1.16639e-05 -1.27561e-05 -8.47929e-06 -6.38408e-06
 -5.58845e-06 -4.08342e-06 -2.37182e-06 -1.50967e-06  6.69091e-07 -2.60529e-07
  1.10332e-06  5.40611e-07  2.26239e-06  2.89406e-06  1.88313e-06  2.83672e-06
  3.65232e-06  4.22586e-06  3.39374e-06  4.51120e-06  5.18172e-06  5.66262e-06
  4.55946e-06  5.36664e-06  6.06287e-06  6.87693e-06  6.41591e-06  5.64605e-06
  4.44093e-06  2.93277e-06  4.46621e-06  2.30730e-06  4.06305e-06  2.20648e-06
  3.97452e-06  4.83666e-06  4.70433e-06  3.11136e-06  3.58493e-06  5.04014e-06
  4.72933e-06  2.04104e-06  3.60720e-06  3.41234e-06  2.60068e-06  1.71536e-06
  1.57569e-06  5.66393e-06  2.47161e-06  5.51683e-06  2.31496e-06  5.07442e-06
  5.02011e-06  6.61621e-06  4.57927e-06  6.98031e-06  5.48941e-06  1.14275e-05
  2.46395e-05  1.66407e-05  2.73669e-05  2.69404e-05  6.52616e-05  9.23982e-05
  9.45437e-05  0.000182898  0.000269928   0.00100716   0.00391929    0.0433661
     0.173822     0.107828     0.271385     0.378386     0.306323    0.0918530
     0.830390     0.662413    -0.386858    0.0734655      1.29372      1.41912
    -0.746554    0.0500641   -0.0466668     0.434108     0.769837   -0.0546892
    0.0878052    0.0596240     0.347320     -3.74396  1.97124e-06   0.00555587
    0.0124871    0.0110285   0.00543065  0.000349579  -0.00456475  -0.00940419
   -0.0118808   -0.0151591   -0.0143467  -0.00619434   0.00217942    0.0102316
   0.00953942 -0.000604484   0.00812585   0.00445308 -0.000359031  -0.00435791
  -0.00276338 -0.000271899  -0.00254297   0.00107321 -0.000667421  0.000576587
 -0.000247081  0.000982847   0.00119579  -0.00186058   0.00202680  -0.00486032
  0.000541466 -0.000647127  0.000652730 -0.000596197  -0.00110283 -6.26844e-05
   0.00206035  -0.00206592  0.000961372  -0.00117701   0.00126793  -0.00150591
   0.00456521  -0.00172506  -0.00374947   0.00297618 -0.000147122  -0.00367513
   0.00260588   0.00141509 -0.000522682  0.000919564  -0.00137389 -0.000302242
  0.000184519 -0.000784216   0.00172371  -0.00124609  -0.00243957   0.00263824
  -0.00114243   0.00231578 -0.000718553   0.00101661   0.00604965   0.00744732
   0.00617246   0.00370815   0.00106870 -0.000767808  -0.00275387  -0.00589332
  -0.00359912  -0.00346476  -0.00364167  -0.00232962  -0.00269042 -0.000859037
   0.00482362   0.00327768   0.00357951  -0.00488247  -0.00101528   0.00416605
  0.000292016 -0.000647292  0.000438609  -0.00183446  -0.00224416   0.00266109
  -0.00196754  -0.00139329   0.00132737  0.000570954 -0.000265342  0.000499319
 -7.49692e-05  -0.00145530  -0.00237154   0.00431377  -0.00186733   0.00479260
  -0.00509079 -0.000129911   0.00290908   0.00280497  -0.00227221 -0.000555229
  0.000190809  -0.00298328 -0.000547180  -0.00200144   0.00773881  -0.00153281
  -0.00217553  0.000188080  -0.00190643 -0.000786419  0.000725872 -0.000261304
  -0.00256171   0.00189428  -0.00381902  -0.00114979   0.00100865  -0.00209219
 -0.000205534     0.143458    0.0372212   0.00313245   -0.0390187   -0.0497178
   -0.0545567   -0.0418719   -0.0659084    -0.119950    -0.168227    -0.199943
    -0.101750  -0.00616284    0.0602434    0.0202768   -0.0840065   -0.0873903
  -0.00675173   0.00401917   -0.0449345   -0.0521256   -0.0919614    -0.103602
  -0.00124074   -0.0418731   -0.0382615    0.0764892   -0.0226347    -0.162908
  -0.00679498   -0.0428568   -0.0990813    -0.126126    0.0976496     0.167068
    0.0302724    -0.150029   -0.0266136   -0.0529264    -0.209127     0.143202
     -1.99337     0.574232     -3.72271     -1.20513      1.36720     -2.04989
     0.164101      1.08970     -1.08107     0.980953      2.47893      1.18345
      4.04899     0.549204      2.29562      5.14923    -0.388614      9.28953
     -13.0360      7.84800      25.0907      30.9733      191.103   -0.0480768
   -0.0304423   -0.0221829   -0.0183568   -0.0117533  -0.00723537  -0.00298234
   0.00366335    0.0105447    0.0225725    0.0460255    0.0896154     0.127616
     0.108154    0.0480611    0.0169486    0.0188883    0.0210872   0.00577647
   0.00568452  -0.00413648  -0.00540101  -0.00763825  0.000808965  -0.00423765
   0.00694909    0.0157835  -0.00573866   0.00164732   0.00331532   0.00331349
   0.00399795   0.00795706 -0.000546976   0.00720916  -0.00909019  -0.00114833
  -0.00508559  -0.00181471   0.00670703  -0.00467853  -0.00352902  -0.00157004
  -0.00878093   0.00575416  -0.00360396  -0.00670324 -0.000430951 -0.000758876
  -0.00534290   -0.0133058  -0.00527524  -0.00106962 -0.000702208  -0.00145137
 -0.000308326  -0.00134985  -0.00334573  -0.00577290   0.00677363  0.000354075
    0.0270923  -0.00877405    0.0356006      540.129      249.437      113.803
      19.3747     -31.6573     -76.1152     -90.7114     -73.6261     -52.1319
     -37.8846     -63.7362     -270.092     -415.250      76.1762      190.645
      24.2500     -76.7478      18.3637      34.2063     0.860876    -0.362783
     -7.64929      6.64533      5.86837     -21.0929      22.9099     -18.0554
      117.254     -163.409     -51.6318      39.1192     -197.464      635.025
     -393.114     -236.673      1998.39     -4636.36     -1730.12      1410.10
     -2015.22     -2656.15     -2313.39     -2322.53     -2307.58     -2895.92
     -1631.10     -2067.26     -2097.42      2272.14      5417.08      4898.24
      1882.28      1889.91      2792.65      470.000     -56.1782      98.2631
     -442.604     -534.963      57.6181     -41.4489      1305.92      394.299
      2587.04      616.005     -650.099      578.623     -97.3017     -553.622
     -624.496      315.698     -731.068     -699.299     -694.677     -553.486
     -1927.82     -2683.03     -5931.97     -81877.8     -770605.     -319371.
     -198811.      436985.      110944.     -28585.5     -137714.     -66976.2
     -19667.6      71158.3     -26550.6     -6669.51     -64356.2      85779.9
     -36564.9      3325.12     -10481.9     -11221.3      50608.1     -58216.2
      42290.1      13179.6      3916.72      12626.4      35695.3      17666.3
     -4573.31     -20843.1     -10889.4      77416.7      164119.      73084.9
      289631.  4.13277e-05
   -0.0811335   -0.0318516    0.0198740   -0.0644690      1.46955    0.0700388
    -0.108398   -0.0163930 -0.000124214  0.000286090 -0.000202761 -0.000467099
 -0.000370339 -0.000218157 -6.32677e-05  2.89894e-06  1.25271e-05  7.74690e-05
  6.71661e-05  3.79582e-05  3.32081e-05  2.57209e-05  6.64331e-06  8.24368e-06
 -6.71748e-06 -1.35790e-05  4.23790e-06  2.77914e-06  1.08139e-06  6.90084e-07
 -7.44608e-06 -1.87671e-06 -5.49184e-06 -4.10823e-07  1.29903e-06 -2.62584e-06
 -4.27766e-06 -4.89445e-06 -5.04631e-06 -2.70739e-06 -4.81935e-06 -4.34928e-06
 -5.02382e-06 -3.53145e-06 -1.24700e-06 -3.67794e-06 -1.26145e-06 -1.52253e-06
 -2.00184e-06 -4.54196e-06 -2.94638e-06 -3.14617e-06 -1.22420e-06 -1.96113e-06
 -2.09240e-06 -7.30902e-07 -1.97830e-06 -2.64700e-06 -2.65990e-06 -8.60171e-07
 -8.14157e-07 -2.16716e-06 -1.51911e-06 -2.62148e-06 -3.27449e-06 -2.40729e-06
 -3.28032e-06 -2.14642e-06 -5.55324e-07 -1.35134e-06 -7.75085e-07 -2.19828e-07
 -7.17977e-06 -8.20962e-06 -6.50878e-06 -7.68804e-06 -5.98702e-06 -4.60026e-06
 -4.75683e-06 -8.24762e-06 -8.55711e-06 -6.28316e-06 -7.83045e-06 -7.78323e-06
 -8.60700e-06 -5.40386e-06 -9.29627e-06 -9.52429e-06 -9.21828e-06 -7.82889e-06
 -9.48534e-06 -1.20757e-05 -1.28607e-05 -1.65345e-05 -1.49517e-05 -1.86970e-05
 -1.54474e-05 -2.46469e-05 -2.88798e-05 -3.25764e-05 -2.69682e-05 -3.23868e-05
 -5.94333e-05 -5.82786e-05 -7.88456e-05 -9.68095e-05 -0.000129684 -0.000277623
 -0.000378298 -0.000617800  -0.00136791  -0.00208465  -0.00365031   -0.0241692
    -0.213561   0.00253522    -0.280658     0.335402  -0.00288330    -0.104523
   -0.0769717   -0.0474163    0.0688305    -0.656969     0.301529   -0.0795244
    0.0931116    0.0153629   -0.0445325   -0.0637791     0.171746     0.202359
    -0.248285   -0.0180472     0.481661     -1.18083 -6.13589e-06   -0.0384473
   -0.0175808  -0.00509908  -0.00108051   0.00354915    0.0149162    0.0213542
    0.0203576    0.0134697   0.00149587 -0.000432207  -0.00263746  -0.00174189
  -0.00160978  -0.00693264  -0.00787305  -0.00689196  -0.00545687  -0.00276525
 -0.000473535   0.00499174   0.00843173   0.00162431  -0.00202762  -0.00282391
 -0.000365767   0.00240200  -0.00132225 -0.000969736   0.00197813   0.00286833
 -0.000729226  -0.00139376  -0.00344752 -0.000335907  0.000806594   0.00403787
 -1.03006e-05  -0.00212478  0.000151994   0.00249399   0.00680400 -0.000930307
  -0.00139441  -0.00174598  5.64359e-05   0.00213917  -0.00111224 -0.000773131
   0.00210445   0.00171697  0.000852502  7.13233e-05  2.41186e-05  -0.00173734
  -0.00130848  -0.00111521  -0.00115766  -0.00177330  -0.00173106  -0.00176993
  0.000160764  0.000879868   0.00457169   -0.0150684    0.0677725    0.0431118
    0.0177123   0.00852369   0.00629100    0.0114831   0.00695280  0.000911166
   0.00289671 -0.000299233   0.00753132   0.00802125   0.00845087   0.00638598
 -0.000420102  -0.00391947  -0.00308494  -0.00212701  -0.00229659  -0.00322669
  -0.00283700   0.00151583   0.00409886  -0.00228204  -0.00516511  -0.00218599
  -0.00250397   0.00119946 -0.000401707  0.000673839  0.000588787   0.00289614
  0.000610756  0.000727130  -0.00140721 -0.000537584  -0.00410016  0.000212380
  4.53112e-05   0.00753053  -0.00538429  -0.00178571   0.00659441  -0.00569867
  -0.00387323  -0.00424281  -0.00234953   0.00235439  -0.00514330 -0.000692831
   0.00257268   0.00394809   0.00493804   0.00386105   0.00228337   0.00341008
  0.000939131  -0.00254646 -0.000959831  0.000241166 -0.000119718  -0.00171477
  0.000651990    -0.297375    -0.344718    -0.288030    -0.230521    -0.113781
   -0.0720182   -0.0591569   -0.0586841   -0.0447812   -0.0411941  -0.00416727
    0.0224750     0.124741     0.110883     0.116544     0.100848    0.0693358
    0.0518623    0.0458041 -0.000434006   -0.0610183    -0.119984    -0.130332
    -0.130492    -0.140677    -0.134578    -0.110255   -0.0275587    0.0390945
    0.0501206    0.0180841   -0.0966535   -0.0595811     0.161102     0.344470
     0.220032     0.160431     0.100512     0.261519    -0.435244    -0.308187
    -0.955709   -0.0147541      1.18226     0.979709      3.33667     0.733006
     -3.71292     -3.09145    0.0313169      1.96759     0.298067     -3.81709
     -5.56094    -0.416804      1.67082     -2.31099     0.768700      8.71044
      26.4560      26.9085     -3.06807     -3.82946      192.618  -0.00218145
  -0.00357349  -0.00640551  -0.00686010  -0.00283850   0.00341520   0.00230549
   0.00728370   0.00982290   0.00646677   0.00611357   0.00337972  -0.00456786
  -0.00502580  -0.00371805  0.000543885   0.00109156   0.00405059   0.00606359
  0.000700040  -0.00271631   0.00415194   0.00614580   0.00999147   0.00531501
   0.00185914   0.00193636   0.00859978  -0.00152310   -0.0104277   -0.0112524
   0.00364682    0.0121907  -0.00132099   -0.0152050  0.000185525 -0.000119910
   0.00188310    0.0108361  -0.00542891   -0.0111428  -0.00803027    0.0120598
   0.00902125  0.000135405  0.000210977   0.00533752  -0.00112448  -0.00373325
  -0.00550305    0.0103993   0.00261777  -0.00368373  -0.00797745  -0.00717540
   0.00365080   0.00325419 -0.000522111  -0.00436333   0.00483846  0.000432383
   0.00924566   0.00153489   -0.0110838     -110.034     -59.9568     -10.2082
      18.9633      27.5904      39.6279      16.9628    -0.164991     -11.1623
     -10.7485      33.0769      19.6593      38.8839      10.5377      9.02785
     -21.1340      23.1943     -6.38213      2.06121     -37.3128      38.2753
      57.7234     -15.1972     -28.5616      4.81261      5.51570      5.79500
     -27.4748     -48.9061     -20.5725      113.743     -35.7206     -597.231
     -328.570     -126.520      5592.52     -3265.08     -764.946     -821.511
      1782.61     -280.631      194.162     -792.093      309.910      1890.57
      1038.42     -262.932     -1583.77     -1050.68     -195.770     -828.976
      128.326     -231.182     -816.942     -1021.63     -719.022     -594.058
     -211.733      157.784      103.022     -429.398     -486.298     -733.863
     -1329.54     -674.589      67.1571     -344.602     -171.843     -180.060
      29.2635     -527.122     -163.281     -143.771     -267.973     -135.791
      146.677      957.243      991.658      6454.32      253762.  1.28771e+06
     -478806.     -254207.     -90.5021     -9275.09      52784.8      38842.1
      71456.1     -29872.9      36038.1     -87049.6     -52970.1     -85964.6
     -29516.5      8338.38      53793.1      54700.7      5333.33     -10284.1
      4847.53      73309.2      2280.11      7088.02     -3038.03      31588.7
      48729.1     -57236.0      31536.4      21057.7      186827.     -10009.8
     -400246. -0.000577026
    -0.400403    -0.426263    -0.276465    -0.462612    0.0749858    -0.665043
     0.280406     0.168492   -0.0120234  -0.00353983  -0.00151886 -0.000722010
 -0.000391057 -0.000262846 -0.000254453 -0.000194648 -0.000217003 -0.000220950
 -0.000170711 -0.000117651 -4.47126e-05  6.01902e-06  3.10110e-05  6.40375e-05
  6.63830e-05  6.91040e-05  5.82271e-05  6.55638e-05  5.57436e-05  4.85344e-05
  5.41094e-05  4.16590e-05  4.46553e-05  3.84509e-05  3.02671e-05  2.27901e-05
  2.01400e-05  2.17615e-05  1.73598e-05  1.38348e-05  1.12370e-05  1.05610e-05
  1.23944e-05  7.45090e-06  8.92462e-06  8.82519e-06  6.19213e-06  6.56602e-06
  9.30072e-06  6.56650e-06  7.25680e-06  7.35411e-06  6.26454e-06  5.79241e-06
  5.31964e-06  5.07964e-06  6.57696e-06  5.75315e-06  3.26542e-06  4.00523e-06
  2.62947e-06  8.73526e-07 -1.28024e-07 -6.31505e-07 -1.16408e-06 -6.06527e-07
 -1.67112e-06 -2.53083e-06 -1.20319e-06  8.94117e-07  1.73357e-06  9.72085e-07
 -6.82322e-06 -7.32268e-06 -8.54396e-06 -8.23680e-06 -8.84508e-06 -7.39689e-06
 -6.99403e-06 -7.02527e-06 -9.05521e-06 -6.59428e-06 -9.35465e-06 -7.33229e-06
 -8.73401e-06 -6.47505e-06 -8.37358e-06 -7.79245e-06 -8.95085e-06 -9.03937e-06
 -1.00614e-05 -1.12014e-05 -9.93387e-06 -1.76766e-05 -1.83191e-05 -1.40004e-05
 -1.82347e-05 -2.40042e-05 -2.11147e-05 -3.04489e-05 -2.48214e-05 -4.35886e-05
 -5.39484e-05 -5.02050e-05 -0.000106087 -0.000118506 -0.000129514 -0.000268582
 -0.000447972 -0.000729802 -0.000836970  -0.00234061  -0.00638889   -0.0146526
     0.250445     0.368072     0.100165    -0.323718     0.156749     0.273521
   -0.0525882    -0.182855     0.487669    -0.296414    -0.113858     0.607345
    0.0986005    0.0604249  -0.00548091    0.0759958    -0.425885     0.129421
    -0.751650     0.315132     0.937827     -9.68854 -5.41796e-06   -0.0119722
   0.00884548    0.0126093    0.0135106    0.0128057   0.00260542   0.00107380
   0.00272842   0.00158451   0.00536192   0.00810906    0.0106226    0.0139272
   0.00337407  0.000342987  -0.00857590  0.000483820    0.0192657   0.00554587
  -0.00249169   -0.0128839  -0.00864782  -0.00619110  -0.00427033  -0.00308255
   0.00100090   0.00348328   0.00255343   0.00276827  -0.00202483  -0.00218964
  -0.00622903  -0.00290988   0.00152068 -0.000109531  -0.00590592   0.00249354
   0.00779831   0.00166282  -0.00140964  -0.00576101  -0.00159454   0.00151470
  -0.00282652   -0.0109961  -0.00396691   0.00578941   0.00635488   0.00969947
   0.00680505   0.00878979   0.00822991 -0.000310764  -0.00143017   -0.0109178
  -0.00927873  -0.00631496  -0.00732465  -0.00239334  -0.00472335  0.000901234
   0.00323493   0.00598600  0.000453419    0.0196429  -0.00197744  -0.00412277
  -0.00702085  -0.00823816 -0.000425638   0.00898836    0.0208321    0.0257644
    0.0177598    0.0107470  -0.00693441   -0.0225658   -0.0298214   -0.0318939
   -0.0308361   -0.0255850   -0.0127623  -0.00309548  -0.00367096   0.00372080
   0.00445467   0.00300574  -0.00128086  -0.00248833 -0.000361757   0.00257588
  -0.00437280  -0.00576014  0.000838357   0.00122184   0.00420636   0.00207157
   0.00460778   0.00632006   0.00148422    0.0134999    0.0154589   0.00906834
  -0.00474813   -0.0155263  -0.00400601 -4.01106e-05   0.00377259   0.00336010
  -0.00569276  -0.00245031   0.00425622   0.00567426   0.00317180   0.00177076
  -0.00141707   0.00193685   0.00218790 -0.000276911  -0.00338541  -0.00449895
  -0.00219624   0.00176818   0.00340019   0.00195306  0.000896395 -0.000841416
   0.00782193     0.522528     0.376222     0.361010     0.306450     0.382010
     0.423728     0.448411     0.516198     0.594194     0.569269     0.617082
     0.636376     0.425867     0.357088     0.283606     0.175537     0.116676
     0.131290     0.101134     0.103950     0.141921     0.139435     0.148992
     0.195980     0.236452     0.194413    0.0901467   -0.0662811    -0.189018
    -0.203953   -0.0999812     0.204106     0.602243     0.297315    -0.322885
    -0.597113    -0.452985     0.534020      1.07257     -1.19044     -1.45471
      4.72085      4.09371      2.45627    -0.294343     -2.95740     0.540837
      9.94689      5.77253    -0.988704     -3.94628     -2.00412      1.22820
      5.80462      9.14846      15.8566      14.2171      14.1163      40.5166
      9.76372      55.7453      80.9084     -52.9222      353.702  -0.00684356
  -0.00610013  -0.00293054 -0.000819224  -0.00222465   0.00144060   -0.0132194
   -0.0178918   -0.0231145   -0.0153039   -0.0175961  -0.00983595  -0.00280235
   0.00207003    0.0127488   0.00716363   0.00667873   0.00366189    0.0111662
   0.00355855   0.00519162    0.0113194    0.0110538   0.00321656  -0.00276994
   -0.0112660  -0.00520031   0.00158623   0.00689499    0.0106633   -0.0132075
   -0.0141223  -0.00856471  -0.00335029   -0.0183690  -0.00557812   -0.0241394
   0.00612668    0.0325702    0.0376031    0.0156241   0.00190993  -0.00446711
  -0.00192830   0.00686630   0.00375934 -4.66227e-05   0.00183192  0.000378816
  -0.00593001   -0.0148374  -0.00808728  -0.00709235   -0.0144725   -0.0112532
  -0.00827432  -0.00682189  -0.00363569  -0.00492849  -0.00519094   0.00352146
    0.0557684  0.000288665   -0.0348879      22.8384      56.2181      56.6900
      42.0518      3.22301     -48.1769     -48.2064     -52.1407     -65.9675
     -57.9509      6.38708      15.9339      30.6945      33.5103     -15.0284
      42.8552      15.3555      33.0547     -30.1733      46.3544      21.6307
      68.2748      120.873      191.956      74.9888     -250.005     -79.4615
     -121.801     -183.116     -402.576     -239.610     -716.080     -39.3689
      272.170     -785.052      2303.59      2493.79      986.620      3237.37
      5411.10      2315.61     -317.460      1618.53      3204.42      991.970
     -305.023     -42.8156      2255.68     -1275.10      1807.64      1670.39
     -415.428      509.332      2049.00      808.385     -335.634      1141.27
      1007.33      109.365     -115.535     -438.604     -216.072     -1464.39
     -2615.52     -1260.63     -746.735     -707.980     -3.00858      80.1415
      60.6322     -30.2566      297.296      253.995      367.393      427.462
      389.749      283.290      903.298      14639.6      428363.      726228.
     -512546.  1.37921e+06      482608. -1.17736e+06     -632839.      333039.
      380357.     -331906.     -224006.      367940.     -164705.      297063.
      19575.3     -178051.     -23085.1     -5677.02      96993.5      36044.2
     -69496.3      3328.11      121061.      37477.3     -14327.3     -23318.2
      5502.74     -39310.1     -108611.      145008.     -1901.85      159457.
      812245.    0.0169150
    -0.106371    0.0450054    0.0631351 -0.000898234    0.0210199    0.0146993
   0.00186607    0.0589141   -0.0135146  -0.00262934 -0.000905143 -0.000483186
 -0.000198948 -0.000316237 -0.000237899 -9.22257e-05 -5.23117e-05 -9.56098e-05
 -3.22040e-05 -5.13141e-05 -3.64207e-05 -2.14499e-05  2.20639e-07 -6.27850e-06
  2.03163e-06  4.45885e-06  1.30468e-05  7.87047e-06  6.36120e-06  6.99285e-06
  6.24776e-06  3.23668e-06  1.15653e-07 -4.65582e-06  5.11907e-07 -1.99845e-06
 -1.93517e-06 -2.49505e-06 -1.74718e-06  1.58574e-06  5.86016e-07  1.78863e-06
  1.50188e-06  1.33354e-06  2.68483e-06  3.90124e-06  2.41425e-06  2.26164e-06
  1.43461e-06  2.61551e-06  1.66161e-06  2.45303e-06  1.93141e-06  2.38940e-06
  7.25125e-07  8.69884e-07  2.39788e-07  1.31270e-06 -1.00135e-06  3.79777e-07
  1.00175e-06  8.73775e-07  8.69869e-08  5.85021e-07  3.92663e-08 -1.07639e-06
 -2.63410e-07 -7.29182e-07 -8.07720e-07 -1.73091e-06 -1.06933e-06 -6.42576e-07
 -1.35828e-06 -1.18921e-06  3.81396e-07 -2.81229e-06  1.41235e-08  4.88788e-07
 -2.84961e-06 -1.55453e-06 -1.04751e-06 -1.78517e-06  9.73375e-07 -1.51478e-06
 -7.04339e-07 -1.23908e-06  4.05491e-07 -1.87577e-06  1.30155e-06 -2.83253e-06
  2.02953e-06 -2.17638e-06  1.95624e-06 -1.64736e-06 -5.21572e-07 -5.11886e-06
  4.67721e-07  2.74064e-06  3.67623e-06 -1.55538e-06 -7.68669e-06 -7.95886e-06
 -2.26058e-06  8.46416e-06 -2.65674e-05 -2.45637e-05  2.31769e-05  7.87610e-07
 -7.69931e-05  4.14254e-05 -1.77542e-05 -9.00666e-05 -0.000214396    0.0228835
    0.0551403     0.126193     0.151777     0.164952     0.230972     0.209140
     0.141752     0.139377     0.271240     0.577236     0.713351     0.298706
     0.110297    0.0514044    0.0458313 -2.05845e-06   -0.0367555   -0.0486108
    0.0410073    -0.179874     0.518409     -1.17404 -1.78013e-06   0.00489854
  -0.00698869   0.00319537   0.00727872 -0.000973626  -0.00713437  -0.00617587
 -0.000690569   0.00189197    0.0115760   0.00888543  -0.00114963  -0.00794665
  -0.00595554  2.77452e-05   0.00140792  0.000610921 -0.000157371   0.00152634
  0.000625125  -0.00146566  2.95358e-05  0.000797461 -0.000681949 -0.000284621
  0.000652887  0.000346019  0.000426454  0.000541169 -0.000445652 -0.000593541
  0.000402282  -0.00107006  0.000156765  0.000133742 -0.000689657  -0.00108827
 -0.000179024 -0.000701810 -0.000103412  0.000223096  6.78745e-05  0.000126374
   0.00115506   0.00137026 -0.000296977 -0.000133377 -0.000745434  -0.00104248
 -9.22025e-05   0.00127590 -8.33730e-05  0.000329518 -0.000699802  0.000415383
 -0.000347877  0.000736431   0.00110741  0.000546759  0.000345215 -0.000242102
  -0.00148686 -0.000992987 -0.000774132   0.00289674   0.00228845  -0.00300282
  -0.00362860  -0.00263039  -0.00228524 -0.000916715  0.000162201   0.00224766
  0.000498223   0.00196809   0.00388130   0.00236179  -0.00333317  -0.00456418
  -0.00144310   0.00230557   0.00396978   0.00136689 -0.000185184 -0.000464891
  0.000440538  1.40605e-05  -0.00513831 -0.000294133    0.0173475    0.0188629
  -0.00289671  -0.00501433 -0.000989564  -0.00386376  -0.00347669  -0.00271052
 -0.000773287  0.000463736  0.000429921 -0.000292226  0.000426595  -0.00100706
  0.000903962 -3.32546e-05 -0.000303137  -0.00131921 -0.000686238 -0.000146939
  -0.00109537  0.000684189 -0.000736740  -0.00110988 -0.000357766  0.000373423
 -0.000762490  9.53106e-06  -0.00126857  3.26236e-05 -0.000299830 -0.000109318
  0.000724753  -0.00126667   0.00110071  -0.00190570  -0.00400113  -0.00673047
   0.00141522    0.0800917    0.0434375    0.0271508    0.0132782   -0.0302445
   -0.0608946   -0.0326917   -0.0383109   -0.0158377    0.0286846    0.0316490
  0.000259588  -0.00261549  -0.00111049  0.000385685  -0.00780297  -0.00744672
  -0.00944550   0.00521421   0.00405239  -0.00560706   -0.0138720    0.0224851
    0.0175158   0.00318536   -0.0604462   -0.0369438   -0.0142598  -0.00205144
  -0.00215269   0.00377789  -0.00737311    0.0161711   -0.0306477   -0.0893605
   -0.0532192    0.0451836    0.0876332   -0.0390375    0.0408953     0.142798
     0.194931    -0.122179     0.170225     0.101799     0.198778    -0.200054
    0.0133949     0.169780     0.107229    -0.434857    -0.317235      1.42927
    -0.450468     0.599304   -0.0209238      1.61591     0.699753    -0.828976
      4.14034     -3.45836      19.3270      24.5165      7.98006   0.00335191
    0.0105592    0.0107160   0.00505543  -0.00190461  0.000669410  -0.00271495
   0.00315403   0.00482811 -0.000422651  -0.00333971  -0.00245418  0.000944126
   0.00278086   0.00192418   0.00333653 -0.000535235  -0.00486073  -0.00255838
 -0.000322413 -0.000806597  -0.00161393 -0.000234529  -0.00259003  -0.00578651
  -0.00299408   0.00488822   0.00516958  -0.00182024  -0.00514942  -0.00171537
   0.00144347  -0.00186182 -0.000398939  -0.00132429  0.000538520  0.000831331
  -0.00152998  -0.00225717  -0.00119616   0.00106138  -0.00206061   0.00119173
   0.00110938  0.000142391  0.000661996 -0.000348721   0.00190330   0.00101546
 -0.000628147   0.00201619  5.46953e-06 -0.000382217  0.000299231   0.00149599
   0.00378357  0.000916831  -0.00714052   0.00759842  -0.00506942  -0.00215584
   0.00306484  0.000339411   0.00133005    -0.626663      24.1860      12.9258
     -7.53551     -18.4243     -6.87641      5.68020     -1.17620     -12.4368
      20.5156     -1.98177     -5.13410     -8.10400      9.38452      10.9019
     -10.0574     0.924163     -3.70986      8.17672     -7.68885      2.01158
      11.0261      3.04530      11.0286      2.84275    0.0315196     -1.15698
      10.5850      6.97147      2.01503     -53.0369      51.8936      53.2359
     -54.0391     -73.2637     -478.634     -9.03903      309.781     -547.800
      98.0678      353.786     -50.4801      75.0124      209.798      3.50455
     -90.9773      27.1608     -75.4419      34.3655      9.18401     -156.600
     -98.2445     -11.7626     -240.106     -6.12208      290.575     -59.9648
      99.1176      154.770      4.14352      156.115     -60.2013     -346.157
     -473.270      47.0090      105.692      5.82124     -321.087     -196.164
     -76.6657     -413.327     -180.801     -128.536     -265.638     -280.309
      4.43437      152.977      453.229      16020.2      181363.     -67557.5
     -6956.39     -39690.9     -15726.4      36840.7     -1863.03     -11950.1
     -6649.82      3467.53      7581.41      206.341      6553.29      10766.7
     -13910.8      1378.85      1315.16     -7276.70     -7145.77     -4665.07
     -16012.2     -3128.64      6380.75     -8402.87     -580.805     -7394.08
     -9399.89      19972.9     -13968.4     -4256.36     -16002.8      7686.72
     -19808.9 -0.000137233
     0.197620    -0.432060    -0.713556    -0.397449     0.230696  -0.00559489
    -0.167956    0.0888061   0.00349076   0.00132039  0.000808374  0.000360487
  8.90069e-05 -0.000133201 -0.000190305 -0.000106206 -8.25578e-05 -5.93465e-05
  5.13349e-06  1.88203e-05  2.01897e-05  5.71149e-05  6.45809e-05  7.65348e-05
  7.32104e-05  6.20576e-05  5.06268e-05  4.26011e-05  3.85042e-05  3.57409e-05
  3.56570e-05  3.68079e-05  3.60637e-05  2.91204e-05  2.47601e-05  2.62262e-05
  2.37312e-05  2.41926e-05  2.04850e-05  2.23189e-05  1.89486e-05  1.62841e-05
  1.61699e-05  1.77254e-05  1.38223e-05  1.50511e-05  1.28329e-05  1.10537e-05
  1.25620e-05  1.00058e-05  1.00389e-05  1.01754e-05  8.74767e-06  8.08952e-06
  8.56384e-06  7.67282e-06  5.84442e-06  3.77129e-06  5.04600e-06  2.52255e-06
  4.19477e-06  2.30730e-06  1.65325e-06  2.39194e-06  2.13812e-06  4.74120e-08
 -1.21203e-07 -1.37020e-06 -8.83314e-10  1.26379e-06  2.66166e-06  5.78311e-06
 -6.46435e-06 -7.07397e-06 -7.78769e-06 -6.51517e-06 -8.60459e-06 -8.73872e-06
 -9.75876e-06 -7.51081e-06 -7.53750e-06 -9.49876e-06 -8.34149e-06 -6.63106e-06
 -9.49221e-06 -9.55321e-06 -7.16257e-06 -1.01608e-05 -1.25564e-05 -1.29156e-05
 -1.16407e-05 -1.20409e-05 -1.58751e-05 -1.53829e-05 -1.21043e-05 -1.44463e-05
 -1.51344e-05 -2.26678e-05 -2.67944e-05 -2.71266e-05 -4.58251e-05 -4.43850e-05
 -6.77779e-05 -8.70494e-05 -8.98581e-05 -0.000104818 -0.000184499 -0.000202491
 -0.000448262 -0.000675312  -0.00129399  -0.00312380  -0.00711056   0.00510093
    -0.284347     0.227825   0.00872672   -0.0496775     0.794003    -0.115650
    -0.313222    -0.306211   -0.0223443    -0.186579     -1.09005    -0.297059
     0.111913   -0.0285221    0.0202678    -0.142553    -0.729124     -1.00641
      1.90262     0.826820      2.59649     -59.0802 -7.15644e-06    -0.125030
   -0.0154947    0.0274225    0.0430730    0.0486000    0.0346796    0.0177100
   0.00362141  -0.00810424   -0.0125767  -0.00920252   0.00175015    0.0101022
 -0.000870100  0.000809522 -4.73189e-05  -0.00245533 -0.000295953   0.00295267
   0.00451717    0.0120472    0.0111971 -0.000705432  -0.00869718  -0.00463438
  -0.00299841  -0.00501641  -0.00457962  -0.00183273  0.000397901   0.00564369
   0.00599256   0.00607563   0.00398051  -0.00554708  -0.00334297 -0.000133429
   0.00674271   0.00289656  -0.00961217 -0.000931843   0.00581411   0.00498085
  -0.00608819  -0.00581043   0.00291786   0.00551890   0.00523127   0.00393577
   0.00115945  -0.00154421  -0.00840134  -0.00370544   0.00341127  -0.00391678
 -0.000521553  -0.00352450  -0.00157277   0.00522146   0.00866178    0.0153558
  0.000637541   -0.0150754 -0.000294014    0.0337934    0.0136479  0.000405212
  -0.00586693  -0.00364893   0.00516857   0.00683316   0.00416529  -0.00377290
  -0.00920156  -0.00748961   -0.0101372   -0.0102214  -0.00509971  -0.00410518
  -0.00814947  -0.00874253  -0.00145679   0.00241930   0.00861156   0.00353997
   0.00646928   0.00691213  -0.00543177  -0.00481828 -0.000357843  -0.00186875
  -0.00302819  -0.00222794  -0.00520364  -0.00179020   0.00361611   0.00452060
  -0.00284512  0.000572083   0.00346115    0.0173419    0.0140708  -0.00210962
   0.00172762  -0.00266989  -0.00691579  -0.00424876  -0.00488170  -0.00165225
   -0.0137975   -0.0133524  0.000621509  0.000978813 -0.000671377  -0.00403350
  0.000943632   0.00183499 -0.000152548   0.00274487   0.00247104   0.00499433
  -0.00181793   0.00276998  -0.00177636  -0.00314528  -0.00196487   0.00244540
   0.00423539   -0.0312015   -0.0308888  0.000790893    0.0109766    0.0371990
    0.0490068    0.0287215    0.0754420     0.112509     0.112979     0.126016
    0.0244360   -0.0384044   -0.0861837   -0.0890066   -0.0762492   -0.0872947
   -0.0433393    0.0472479     0.153517     0.188360    0.0788755    0.0161825
    0.0532888    0.0713690    0.0341696    0.0278200   0.00530465    0.0293083
    0.0509803     0.114086     0.126588    0.0541038    -0.340728    -0.851439
    -0.789568    -0.150434     0.757518     0.786588     -1.50721    -0.959410
      2.65992    -0.146877      4.25345      5.48985     -1.42936     -6.44742
     0.718319      8.38614      4.16356     -3.99840     -8.81579     -6.23152
     -13.5125     -3.40155      11.1012     -12.1708     -3.52251     -7.45025
     -15.3404     -18.8302      83.5678      296.431      1990.87   0.00313185
   0.00293465   0.00106174  -0.00350674  -0.00961479   -0.0122002   -0.0140220
  -0.00985406   -0.0100172  -0.00869711  -0.00747720  -0.00656143  -0.00105589
  0.000243150 -0.000273096  -0.00394674   -0.0111678   -0.0247666   -0.0228106
   -0.0195080  -0.00236864   0.00156055  -0.00643201   -0.0182019   -0.0148961
   -0.0149567   0.00221890   0.00697127   0.00192782  -0.00928906   -0.0179756
   -0.0269110   -0.0350408   0.00494419   0.00829732    0.0166339  -0.00416096
  -0.00773997  -0.00874172  -0.00137971 -0.000759124   0.00427435   0.00714491
   0.00399208   0.00226953   -0.0107993   -0.0133617   -0.0161413   -0.0148547
   -0.0109507  -0.00545879   0.00146639   0.00105133  -0.00167743  0.000871862
   0.00691632  -0.00460082   -0.0204583   0.00282441   -0.0219515    0.0177201
    0.0182989  -0.00173983    0.0474220     -47.2757     -18.5090     -3.94773
     -1.68108   -0.0717009     -1.77415      1.54140      6.07590      8.88110
      5.00532     -27.1695     -3.83429     -36.7703     -53.9867     -19.6222
      11.0384      89.1675      99.1155      32.4364     -5.96715     -52.8727
     -71.0400     -31.1390     -18.3694      6.63694      6.08195     -127.793
     -150.911     -286.866     -400.906     -404.700     -318.147     -197.263
      1758.49      8100.39      22096.6      6415.92      529.340     -5684.48
      649.955      1034.52     -1157.31      4831.85     -4593.38     -880.021
      473.024     -308.465      2003.40      296.528     -7.73528      461.141
     -20.1331     -951.673     -2235.47      303.065      200.744      1480.57
     -116.213     -173.762      292.346      111.752     -81.5478      569.970
      166.283      299.684      152.555      649.675      145.197      210.691
      196.522     -189.882      142.157      234.888      307.151      710.875
      877.181      1659.40      2526.80      28631.0  1.10094e+06     -153105.
      65806.4     -712066.      259114.      18459.9     -196162.     -306714.
      271140.     -141704.      45097.4     -173326.      87277.3      192448.
     -91926.8     -50033.4      24244.9      35820.5     -4295.32     -23297.9
      60089.1      52438.6     -27418.9     -33634.6      25297.5      5758.11
     -7618.55     -33116.9      66971.0      58683.9      124289.      165768.
  1.00772e+06    0.0185586
     0.117005     0.102666    0.0246604   0.00553213   -0.0229420   -0.0305686
   -0.0102197    -0.162089   0.00218544  0.000497902  0.000488738  0.000294366
  0.000105505  6.97727e-05  5.64182e-05 -6.20810e-05 -1.49459e-05  1.16384e-05
  3.65241e-05  1.81775e-05  1.49383e-05  1.02230e-05 -4.44350e-06 -6.27884e-07
 -6.77930e-06 -1.00236e-05 -2.16524e-06 -8.33949e-06 -2.12395e-06 -1.66169e-06
 -7.80420e-06 -3.49249e-06 -6.37585e-06 -6.16083e-06 -9.76311e-07 -5.30315e-06
 -2.40718e-08  1.42083e-06 -2.18504e-06  1.23941e-06  1.14028e-06  7.36220e-07
  1.88025e-06 -6.07448e-07 -4.33202e-07  2.11615e-07  7.34426e-07 -2.37996e-08
 -4.75135e-08  9.39520e-07  8.88436e-07  1.37101e-06 -3.98588e-07  5.60783e-07
 -6.54243e-07 -2.43394e-06 -8.65585e-07 -7.70081e-07 -8.43870e-07 -1.97929e-06
 -1.96504e-06 -5.10335e-07 -1.66966e-06 -3.63660e-06 -1.96533e-06 -4.04401e-06
 -2.27379e-06 -3.94167e-06 -3.01615e-06 -1.77554e-06 -9.37318e-07 -1.69467e-06
 -3.70635e-07  8.90385e-07  1.42357e-06  2.24719e-06 -3.19026e-07 -5.22891e-07
 -7.42317e-08  1.08705e-06 -2.20577e-07 -2.10844e-08  2.47989e-06  9.53432e-07
  2.62251e-06 -3.87788e-07 -1.69178e-06 -9.19275e-07 -1.49729e-06  5.03823e-07
 -1.47210e-06 -3.05199e-07 -2.92167e-06 -3.44503e-06  4.44304e-06 -3.57672e-06
 -6.31297e-07  3.86132e-06 -5.38205e-06  2.85372e-06  7.63683e-06  1.83879e-06
 -1.22066e-05  1.65321e-05 -4.67347e-06  3.24184e-05  3.80467e-05  7.41422e-05
  8.95126e-05  0.000171333 -0.000150164  0.000542530 -0.000818927    0.0262921
  -0.00282132   -0.0266519    0.0737051     0.372832     0.288881     0.286924
   -0.0186963    0.0790917     0.320462      1.02941     0.813236     0.113455
     0.486730   0.00887088    0.0850506   -0.0761155    0.0327215    0.0744388
    0.0683138    0.0308173     0.141814      1.59356  2.05655e-06   -0.0181144
   0.00430293   0.00939733   0.00507994  -0.00105809  -0.00391290  -0.00193205
 -0.000249652  -0.00224969   0.00202181   0.00362087   0.00491108   0.00393250
   0.00147856 -0.000251749  -0.00500924  -0.00428483  -0.00540919  -0.00426278
  -0.00130216  0.000113951   0.00198934   0.00244287  0.000142877  0.000461339
 -0.000382670 -0.000455645 -0.000912679 -0.000626427 -0.000512275   0.00106891
   0.00123537   0.00215513   0.00274737  0.000353601 -0.000407721  -0.00408334
  -0.00219645   0.00248802   0.00234799 -0.000455728  7.54895e-05   0.00198404
  -0.00268937  0.000512528   0.00177608   0.00122330   0.00184688 -0.000776867
  -0.00153959  -0.00178916 -0.000435654 -0.000188600   0.00242908   0.00109096
   0.00119706 -0.000128106 -0.000419936  -0.00222505 -0.000618302 -0.000255582
 -0.000340273   0.00263301  -0.00202934   0.00115995   0.00575614   0.00664421
   0.00372462  -0.00711811   -0.0150316  -0.00729682  0.000732175   0.00707699
   0.00161608  -0.00141688  0.000263869   0.00226218  0.000449386  0.000638548
  -0.00113553  0.000418117  0.000373504 -0.000844487  0.000402773  -0.00410578
 -3.97915e-05   0.00143914   0.00215523   0.00167203   0.00147996   0.00159014
  0.000432006  0.000722573  -0.00144792  -0.00295232  -0.00121942 -0.000206828
  6.14564e-05   0.00231381   0.00335456   0.00121769   0.00327090  -0.00197323
  -0.00407035  -0.00196636  0.000430646 -0.000987748  0.000113316  0.000162497
  0.000348459 -0.000925748 -0.000720515  -0.00144630 -0.000159798  0.000608883
  0.000374849  0.000967010 -4.86883e-05 -0.000388471  0.000217666  0.000684665
  -0.00156037  -0.00222431  -0.00110274   0.00128684   0.00232581   0.00154894
  -0.00176580    -0.168048   -0.0428462    0.0594782     0.104325    0.0530922
    0.0895273    0.0647730    0.0127070  -0.00461789   -0.0241965   -0.0378625
    -0.157996    -0.135433    -0.155544    -0.137321    -0.188064    -0.195916
    -0.185072    -0.180281    -0.203938    -0.203877    -0.204813   -0.0931820
   -0.0202735    0.0216499    0.0591855  -0.00461570   -0.0572888   -0.0675381
   -0.0902536   -0.0269249   -0.0423187   -0.0503882   -0.0983825   -0.0551429
    -0.138013    -0.213338     0.165166     0.280341     0.225063   -0.0961223
      1.00667     0.794244     0.758812      1.16718      2.65251      1.45823
     0.149227      2.14770     0.204068     -2.69092     -2.86175     -3.96584
     -2.43048     -2.29471     -5.97885     -7.71673     -5.18937     -2.49441
      13.1960      4.21739      16.7987      24.3465      15.6171   0.00324154
   0.00327013   0.00224407   0.00270562   0.00135034  -0.00125507  -0.00719703
  0.000719550   0.00251207   0.00294586  0.000831613 -0.000559669  -0.00201968
  -0.00478407  -0.00431827  -0.00787622  -0.00258451 -0.000834870   0.00193238
   0.00159545 -6.96206e-05   -0.0105948  -0.00708886  -0.00579319  -0.00103540
 -0.000352423  0.000289757  0.000677976   0.00584641   0.00371718   0.00190783
  -0.00329015  -0.00981184   -0.0128558  -0.00503881  -0.00332017 -0.000863293
   0.00919078    0.0148803   0.00887742   0.00586660   0.00258081   0.00318627
  0.000616279 -0.000916534 -0.000474035  0.000114263   0.00268360 -0.000547429
  0.000405101 -0.000391128   0.00144312   0.00328824   0.00135562  0.000442564
  -0.00160107 -0.000292323  0.000789704   0.00396938 -0.000970133   0.00463096
  -0.00329007  0.000902456  0.000310736     -1.04984      13.0839      16.3417
      5.19398      5.62640      11.3727      20.9810      13.1934     -8.53165
     -19.9920     -27.9145     -48.8303     -56.6959     -48.4891     -38.7995
     -29.6873     0.634677      21.7089      54.2814      49.9122      34.8043
     -1.15672     -45.2711     -68.5827     -91.9637     -130.878     -145.448
     -149.541     -156.207     -206.213     -229.125     -288.975     -267.252
     -419.102     -1746.23     -5860.48      7380.03      276.821     -970.461
     -834.249     -1080.17     -343.891     -519.320      542.117      9.00505
      1.63478     -18.7497     -605.480     -346.700     -458.211     -986.026
     -524.003     -1004.21     -346.184     -347.008      134.101     -57.8332
      141.201      924.075      1110.52     -39.0557      631.015      865.486
      1250.39      1061.84      614.469     -418.990     -841.092     -439.588
     -350.243     -1407.88     -113.043      347.238      246.679      354.793
      436.356      778.808      1432.79      35163.8      505005.      388404.
      120410.      26992.8     -131348.     -6511.45      1178.58     -81777.1
      4336.34      16383.2     -858.730     -39336.7      27669.7     -32322.5
      35427.0      676.040     -1036.75     -12578.3     -3008.49     -34488.1
      14754.8      17360.4     -4400.05     -19363.5      13099.5      36583.0
      7456.74     -52973.6      28514.3      9430.96      9693.25     -4505.94
     -66147.8  -0.00166010
     0.170509   -0.0198732    -0.150709   -0.0455992      1.08238   -0.0525815
   -0.0454718    -0.260246  -0.00402052  -0.00136070 -0.000718044 -0.000502448
 -0.000223064 -0.000301066 -0.000159367 -8.76522e-05 -4.45171e-05 -2.31739e-05
 -5.15000e-06 -2.52379e-05 -1.93142e-05  7.18643e-06  1.27841e-05  2.66106e-05
  2.10264e-05  1.44809e-05  1.69922e-05  1.97962e-05  2.25845e-05  2.53071e-05
  1.99502e-05  1.37204e-05  9.53916e-06  8.10572e-06  1.05733e-05  6.95292e-06
  8.68941e-06  4.96603e-06  5.50085e-06  3.79620e-06  3.11473e-06  5.90713e-06
  5.97514e-06  3.36394e-06  4.18328e-06  5.13763e-06  5.59623e-06  3.32271e-06
  2.83807e-06  3.92844e-06  2.40853e-06  1.41087e-06 -1.85954e-07  1.74444e-06
 -5.40316e-07 -3.40126e-07  1.35107e-06 -7.81803e-07 -1.11409e-06 -7.43848e-08
 -3.88026e-07 -2.05587e-06 -8.89330e-07 -2.22025e-06 -1.99551e-06 -3.02368e-06
 -2.88050e-06 -2.78476e-06 -3.13524e-06 -2.74613e-06 -2.90120e-06 -1.40829e-06
  9.73654e-08  1.02284e-06 -1.67365e-06 -1.22978e-06  5.20911e-07 -1.15189e-06
 -1.64752e-06  1.90633e-06  1.69512e-06 -5.30508e-07 -1.15037e-06  1.87030e-06
 -5.66222e-07  3.60482e-08 -1.77235e-06 -1.84192e-06  5.05193e-07  1.57132e-08
  1.78230e-06 -3.75909e-06  2.84588e-06  1.25782e-06 -1.11190e-06 -4.30454e-06
 -3.10443e-06  3.81284e-06 -5.83283e-06  3.04689e-06 -6.19972e-06 -9.37451e-06
 -6.09613e-08  1.46670e-05 -1.52895e-05 -8.17064e-06  3.55480e-05 -5.02669e-05
 -8.21355e-05  0.000137226 -1.27919e-05 -1.64801e-05 -0.000338996    0.0185998
    0.0987070    0.0694629     0.208534     0.184382     0.502563     0.391471
   -0.0704155    -0.103439     0.602727      1.47408      1.32958     0.114195
     0.504710    0.0186950    0.0678416   -0.0443347    -0.187226     0.198667
    0.0161512     0.127914    -0.621921      4.21279 -1.08575e-06   -0.0281892
   0.00538038 -0.000659461  -0.00619285  -0.00494690   0.00156700   0.00671599
   0.00961559   0.00775402    0.0151452    0.0142736    0.0105906   0.00243345
  -0.00643110  -0.00307262  -0.00537561  -0.00558534  -0.00552657  -0.00421829
 -9.84075e-05   0.00639156   0.00582035   0.00237907 -0.000497511  -0.00256832
  0.000858711  -0.00115515  6.42391e-05  4.45557e-06 -0.000325879  -0.00355360
  0.000307777   0.00171064 -1.42897e-05  -0.00172805  -0.00167501   0.00198517
   0.00160162   0.00216193  -0.00156105 -0.000537633 -0.000405958 -0.000446810
   0.00399004   0.00247347 -0.000931728  -0.00208272  -0.00261512 -0.000734668
  -0.00224355 -0.000608388  0.000618966  -0.00148883 -0.000728074   0.00230509
   0.00176409 -0.000384004  8.32951e-05  -0.00101276 -0.000616696  -0.00237751
  -0.00183448   0.00116501   0.00207064    0.0283574  -0.00510284   0.00201370
   0.00554092   0.00343741 -0.000990011  -0.00360113  -0.00913233  -0.00618641
  -0.00730247  -0.00948008  -0.00813329  -0.00929157  -0.00447644   0.00272578
 -0.000749038  -0.00321278 -0.000839140   0.00294129   0.00318793   0.00303789
  -0.00215864   0.00238070 -0.000786251  -0.00293128  -0.00185615  0.000236425
   0.00203691 -0.000559755   0.00134553  0.000657674 -1.57808e-05  0.000716636
   0.00118809   0.00145498 -0.000377193  0.000994114  0.000749891  -0.00117345
  -0.00344333   0.00104554  -0.00161538  -0.00256085   0.00297480   0.00255511
   0.00170335  -0.00149480  5.54849e-05  0.000491505  0.000766866 -4.07553e-05
  5.24268e-05 -0.000624522   0.00209708   0.00151972  0.000578211  0.000443011
  8.87930e-05  -0.00101941  -0.00132617  0.000604055   0.00128323  -0.00158774
  -0.00363317    0.0872427     0.168223     0.131002    0.0606347   -0.0406734
   -0.0924777    -0.155256    -0.127003    -0.144325   -0.0809570    0.0289055
    0.0388791     0.127267     0.158196     0.166789     0.168857     0.159069
     0.139043    0.0701283    0.0180411   -0.0132027   -0.0733796   -0.0656688
   -0.0735838   -0.0102412    0.0393508    0.0464616    0.0808950    0.0481481
   -0.0244921   -0.0439629   -0.0841448    -0.166542    -0.446699    -0.409484
    -0.112738   -0.0220738     0.359626    -0.101077    -0.163514     0.123857
      1.42294      2.02515    -0.366570     0.865998      1.51650     0.600080
     -1.42342     -1.22561     -1.65154      1.53463     -1.36353     -3.03667
      1.08640     0.470703     -1.43299    -0.710376     -6.67543      1.87105
     -2.99305     -2.57888     -14.5185      4.66754     -152.446   0.00250139
   0.00431713   0.00266486   0.00165485  0.000824963   0.00278274   0.00581196
   0.00358854   0.00383605   0.00461147   0.00240066   0.00158109  -0.00422821
  -0.00359311  -0.00137241  0.000979802   0.00119260   0.00382066  0.000263169
   0.00368984   0.00560870   0.00356195   0.00140728  -0.00493506 -0.000133621
  -0.00501676  -0.00492397  -0.00299917  -0.00775002  0.000101352 -0.000610501
  -0.00309342   0.00804151   0.00635746 -0.000641608  0.000725406 -0.000174064
  -0.00172794   0.00507339 -0.000668077  -0.00746508  -0.00397020  -0.00505564
  -0.00598634   0.00123454   0.00241634   0.00224879  0.000978225   0.00279923
  -0.00113235   0.00373565   0.00308195  -0.00213878 -0.000562191  -0.00230080
  -0.00159239   0.00443679   0.00739301  -0.00102546  -0.00112992  -0.00581715
   0.00200214  -0.00154917 -0.000221606     -52.5383      7.82328     -4.09943
     -14.7609     -21.4128     -10.9257      11.3224      13.8825      5.35196
      19.2176     -14.4500     -2.52731      13.9174     -29.6138      2.73202
      8.22115     -8.35831      10.8077     -15.2064      23.2630     -23.7978
     -1.76002      61.9370     -42.4791     -23.9361     -27.1954     -2.99688
      8.98003      31.9276     -40.4025      97.5510      398.858      219.271
     -649.740      621.023      2694.93      4029.56     -1313.12     -2396.89
     -397.378     -385.415      156.277     -350.594      251.628     -207.842
     -1137.21     -516.180     -177.210     -296.702     -76.0725      205.186
     -962.954     -964.557     -77.9710     -71.5285     -401.472      94.9705
     -821.816     -352.102      28.0870      87.3405      773.432      754.718
     -16.9959      741.422      143.530     -18.0580     -316.615     -62.9769
      80.4831     -767.176     -110.020     -332.417     -757.734     -278.447
     -481.450     -217.156      2932.05      37581.4  1.33973e+06     -56022.6
     -88644.6     -81362.5      21894.9      10547.8      53176.4     -20831.1
      73898.2     -88450.0      35902.0      50088.7      43363.4     -71338.8
     -32393.4      19215.3      5101.25      44462.0     -35001.4     -20752.1
     -8205.20      32669.2      31587.1      2276.37     -375.638      14703.7
     -12945.3      34530.9      22640.9     -24942.8     -14695.3     -27048.4
      245789.  0.000200200
     0.150768   -0.0287785    0.0600326    0.0121187    -0.553878   -0.0175568
   -0.0424366     0.266109  -0.00821549  -0.00301830  -0.00175478  -0.00137611
  -0.00125169 -0.000875664 -0.000547159 -0.000210498 -4.92887e-05  7.49673e-05
  5.83664e-05  7.39514e-05  5.79156e-05  6.06580e-05  5.80226e-05  4.07604e-05
  4.10108e-05  4.73997e-05  3.62709e-05  3.32044e-05  2.72576e-05  1.92511e-05
  2.45434e-05  2.00969e-05  1.40845e-05  1.60788e-05  1.12349e-05  1.04080e-05
  1.18387e-05  9.72185e-06  1.10123e-05  7.68399e-06  8.05328e-06  6.68033e-06
